175.28869 279.4733 45.763187
175.30048 279.06452 45.768844
175.31228 278.65575 45.774502
175.32408 278.247 45.780162
175.33588 277.83827 45.785826
175.34768 277.42955 45.791489
175.35949 277.02086 45.797149
175.37129 276.61218 45.802815
175.3831 276.20352 45.80848
175.39491 275.79487 45.814149
175.40672 275.38624 45.819817
175.41853 274.97763 45.825485
175.43035 274.56904 45.831152
175.44217 274.16046 45.836826
175.45398 273.7519 45.8425
175.46581 273.34336 45.848173
175.47763 272.93484 45.853846
175.48945 272.52633 45.859522
175.50128 272.11783 45.865198
175.51311 271.70936 45.87088
175.52494 271.3009 45.876558
175.25985 270.94456 44.882287
175.27169 270.5357 44.887989
175.3529 270.15805 44.38338
175.43432 269.78009 43.877336
175.37675 269.34006 44.393881
175.31911 268.90045 44.910815
175.33097 268.49167 44.916522
175.34283 268.08291 44.922229
175.3547 267.67417 44.92794
175.36656 267.26544 44.933656
175.37843 266.85673 44.939365
175.66704 266.40062 45.944799
175.6789 265.99237 45.950497
175.69075 265.58413 45.956191
175.70261 265.1759 45.961888
175.71447 264.76769 45.967585
175.72633 264.3595 45.973285
175.7382 263.95132 45.978985
175.75006 263.54315 45.984688
175.76193 263.13501 45.99039
175.7738 262.72687 45.996089
175.78567 262.31875 46.001797
175.79754 261.91064 46.007506
175.80942 261.50255 46.01321
175.8213 261.09448 46.018918
175.83318 260.68641 46.024625
175.84506 260.27836 46.030339
175.85694 259.87033 46.036053
175.86882 259.46231 46.041766
175.88071 259.0543 46.047476
175.8926 258.64631 46.053192
175.90449 258.23833 46.058907
175.91638 257.83037 46.064626
175.92828 257.42242 46.070345
175.94017 257.01448 46.076063
176.02173 256.63079 45.572505
176.10339 256.24673 45.068261
175.83882 255.87484 44.072617
175.85075 255.46611 44.07838
175.86268 255.0574 44.084143
175.94437 254.67198 43.578547
176.02616 254.28618 43.072326
176.03811 253.87708 43.078112
176.05006 253.468 43.083896
176.06201 253.05893 43.089685
175.79691 252.68303 42.090043
176.15586 252.26289 42.588898
176.23783 251.87553 42.081792
176.0447 251.19824 43.630088
176.05926 250.78632 43.633139
175.93628 250.13285 44.66412
176.29424 249.71522 45.160266
176.30618 249.3071 45.166024
176.31813 248.899 45.171789
176.33008 248.49091 45.177549
176.34203 248.08283 45.183313
176.35398 247.67477 45.189077
176.15966 247.3137 43.682423
176.24155 246.92433 43.176595
176.25353 246.51545 43.182397
176.26552 246.10659 43.188203
176.27751 245.69773 43.194008
176.2895 245.28889 43.19981
176.3015 244.88006 43.205618
176.38356 244.48932 42.699001
176.46565 244.09817 42.192301
176.47766 243.68895 42.19813
176.21282 243.30313 41.196747
176.22485 242.89351 41.20259
176.30705 242.50099 40.693901
176.38926 242.10806 40.185213
176.40131 241.69804 40.191074
176.41336 241.28804 40.196938
176.34888 238.87749 38.187699
176.44131 238.17289 37.676993
176.52604 237.67446 37.17022
176.53815 237.26327 37.17614
176.55026 236.8521 37.18206
177.33876 226.40064 66.285962
177.61933 225.99657 67.246954
177.56217 225.5899 67.739243
177.50493 225.18362 68.232048
177.44789 224.77777 68.723427
177.65868 224.36885 70.164755
177.67045 223.97156 70.170246
177.68223 223.57429 70.175743
177.69402 223.17702 70.181243
177.7058 222.77976 70.186746
177.71759 222.3825 70.192249
177.72937 221.98525 70.197755
177.74116 221.58801 70.203264
177.75296 221.19077 70.208779
177.76475 220.79354 70.214294
177.02924 218.61244 75.986175
179.21484 214.98947 83.686646
178.66522 212.8787 90.534628
178.60883 212.4884 91.004174
178.62041 212.09987 91.009523
178.56404 211.71015 91.478802
178.50777 211.32081 91.947428
178.51934 210.93268 91.952779
178.79149 210.55486 92.862244
178.80306 210.16712 92.867597
178.74671 209.77912 93.335113
178.69046 209.39151 93.801859
178.70203 209.00415 93.807208
178.71359 208.6168 93.812569
178.72516 208.22945 93.81793
178.73674 207.84211 93.823294
178.74831 207.45477 93.828663
178.75989 207.06743 93.834039
178.77147 206.68009 93.839414
178.78305 206.29276 93.844798
178.79463 205.90543 93.850186
178.80621 205.51811 93.855576
178.8178 205.13079 93.860972
178.82939 204.74347 93.866368
178.84098 204.35615 93.871773
178.85258 203.96883 93.87718
178.93214 203.57876 93.420785
179.01169 203.18831 92.964603
179.0233 202.80062 92.97003
179.03491 202.41294 92.975463
179.04653 202.02526 92.980898
179.05815 201.63759 92.98634
179.06977 201.24991 92.991784
179.14953 200.85815 92.534542
178.9689 200.44567 91.171873
178.98055 200.05724 91.17735
178.99221 199.66881 91.182829
179.00386 199.28038 91.188312
179.01552 198.89196 91.193794
179.09542 198.49828 90.734777
179.17528 198.10422 90.276154
179.18696 197.71542 90.281658
179.19864 197.32662 90.287168
179.21032 196.93782 90.292682
179.222 196.54903 90.298201
178.97284 196.13558 89.394461
179.05289 195.73978 88.933649
179.13289 195.34361 88.47333
179.1446 194.95405 88.478879
179.15632 194.56449 88.484434
179.16804 194.17494 88.489992
179.17977 193.78538 88.495552
179.26001 193.38805 88.033867
179.34019 192.99034 87.572782
179.35193 192.60041 87.578359
179.36367 192.21047 87.583946
179.11396 191.79148 86.674821
179.12572 191.40116 86.680423
179.20611 191.00187 86.216926
179.28641 190.60221 85.754105
179.29819 190.21151 85.759724
179.37875 189.81124 85.29535
179.45921 189.4106 84.831706
179.47101 189.01952 84.837342
179.2207 188.59609 83.922745
179.23252 188.20461 83.928394
179.24434 187.81313 83.934046
179.32503 187.41088 83.467838
179.40563 187.00827 83.002446
179.41747 186.6164 83.008118
179.4293 186.22454 83.01379
179.24747 185.78588 81.621857
179.40586 185.07436 80.681511
179.49004 184.572 80.217679
179.30776 184.12954 78.81736
179.38874 183.7233 78.347468
179.40066 183.32947 78.3532
179.48192 182.92259 77.881501
179.36841 182.46327 75.996234
179.44965 182.05498 75.523614
179.53118 181.64624 75.049141
179.34778 181.19696 73.634679
179.42941 180.78697 73.158316
179.31522 180.32104 71.254108
179.39683 179.90962 70.776831
179.41612 179.31536 70.791137
179.42817 178.91836 70.796933
178.7175 177.91332 76.078518
179.79767 175.65537 88.296459
179.74075 175.28223 88.769255
179.94808 174.85876 90.154423
179.89921 174.19428 90.627203
179.84636 173.7264 91.100734
180.05708 173.11058 92.477894
180.0689 172.72249 92.483639
180.01222 172.35238 92.95155
179.95549 171.98265 93.419732
179.96731 171.59493 93.425484
180.16949 171.27489 94.793284
180.1128 170.9064 95.259627
180.12461 170.51944 95.265382
180.07197 170.05557 95.734477
180.28131 169.44811 97.098147
180.2931 169.06189 97.103907
180.30489 168.67566 97.109676
180.24835 168.30928 97.573305
180.19181 167.94327 98.036937
180.2036 167.5574 98.042714
180.14716 167.19191 98.505522
180.34796 166.88001 99.859082
180.35973 166.49488 99.864866
180.37151 166.10975 99.870657
180.38328 165.72462 99.876451
180.32687 165.3607 100.33756
180.27046 164.99715 100.79852
180.5388 164.66767 101.69159
180.48645 164.20967 102.15459
180.43781 163.55857 102.61597
180.44957 163.17452 102.62179
180.39735 162.71766 103.08397
180.60454 162.12549 104.42649
180.61629 161.74216 104.43232
180.56412 161.28684 104.89278
180.56768 161.0938 104.892
180.51554 160.63897 105.35163
180.7824 160.31527 106.23596
180.72615 159.95636 106.69122
180.66997 159.59777 107.14599
180.6817 159.21552 107.15185
180.62555 158.85747 107.60632
180.56947 158.49974 108.06025
180.83554 158.17902 108.93938
180.84726 157.79748 108.94525
180.79114 157.44077 109.39807
180.7351 157.08439 109.85026
180.67907 156.72835 110.30227
180.87672 156.43533 111.62171
180.88842 156.05486 111.62761
180.83243 155.69999 112.07797
180.77653 155.34543 112.52762
180.97354 155.05509 113.84103
180.91768 154.7015 114.28896
180.92936 154.3221 114.29487
180.8735 153.96904 114.74282
181.00989 153.42311 116.49293
180.95842 152.97746 116.94127
181.15424 152.69187 118.24221
181.09857 152.34104 118.68596
181.04287 151.99057 119.12986
181.23819 151.70702 120.42405
181.18253 151.3575 120.86633
181.127 151.00827 121.30763
181.32897 150.444 122.59942
181.27778 150.00265 123.04187
181.22224 149.6549 123.4818
181.41642 149.37597 124.76365
181.36092 149.02916 125.20198
181.30558 148.68263 125.6392
181.31716 148.30777 125.64519
181.26175 147.96178 126.08279
181.45534 147.686 127.35731
181.46691 147.31183 127.36332
181.47848 146.93766 127.36933
181.42309 146.59293 127.80538
181.54922 146.3491 129.50351
181.49406 146.00539 129.93671
181.44596 145.38153 130.37377
181.3953 144.94616 130.80892
181.65434 144.64584 131.645
181.66588 144.27336 131.65106
181.61065 143.93144 132.08327
181.55563 143.58977 132.51411
181.76152 142.76275 133.77893
181.71541 142.23835 134.21308
181.72693 141.86686 134.21918
181.67182 141.52697 134.64914
181.61694 141.18732 135.07765
181.62846 140.81615 135.08377
181.63998 140.44497 135.0899
181.6515 140.07378 135.09604
181.7206 137.46118 135.13646
181.81073 135.06316 135.18403
181.82231 134.69183 135.19025
181.90039 134.28563 134.77414
181.97873 133.87894 134.35647
181.99033 133.50724 134.36271
182.00193 133.13553 134.36896
182.08936 132.54463 133.96244
181.93533 131.49137 132.71942
181.95169 131.02678 132.73006
182.11366 128.74292 127.2424
182.06287 128.31349 127.68359
182.15339 127.52587 127.26736
182.05838 126.70121 125.57329
182.13759 126.2865 125.14715
181.96774 125.78036 123.87779
182.04705 125.3644 123.45002
182.13108 124.85502 123.02786
182.21756 124.15445 122.60067
182.22937 123.77754 122.60703
182.51651 123.14503 120.88038
182.42207 122.30545 119.15764
182.29801 122.00989 120.03964
182.37769 121.59032 119.60917
182.45756 121.17028 119.17756
182.46943 120.79185 119.18395
182.48131 120.4134 119.19035
182.42528 120.0772 119.63406
182.36919 119.74138 120.07805
182.19874 119.22267 118.79379
182.27862 118.80102 118.36136
182.29052 118.42214 118.36779
182.37037 117.99994 117.93563
182.4504 117.57727 117.50246
182.46232 117.19799 117.5089
182.47425 116.81869 117.51535
182.48617 116.43938 117.52181
182.4981 116.06006 117.52827
182.51003 115.68073 117.53473
182.52197 115.30138 117.5412
182.60204 114.87718 117.1082
182.68226 114.45252 116.67434
182.44341 113.96934 115.82107
182.45538 113.58921 115.82756
182.46735 113.20906 115.83406
165.6058 421.65812 3.7337229
165.61777 421.22158 3.7409332
165.56243 420.67103 4.3072268
165.3703 419.67622 5.9962029
165.68509 419.24258 7.0808758
165.69702 418.80768 7.0879295
165.57205 417.93062 8.2145976
165.51714 417.38481 8.7743529
165.76098 416.62634 10.416028
165.77289 416.1931 10.422906
165.71797 415.64956 10.980183
165.66296 415.10638 11.538196
165.97282 414.46358 12.621186
165.91791 413.9223 13.176006
165.86291 413.38139 13.73144
165.8081 412.84133 14.285151
165.75323 412.3017 14.839249
166.06196 411.66432 15.914768
166.00715 411.12649 16.466049
165.95229 410.58911 17.017601
166.19351 409.84868 18.630605
166.13866 409.31326 19.179658
166.15047 408.88436 19.186139
166.09576 408.34995 19.73391
166.33599 407.61522 21.338563
166.34777 407.18738 21.344945
166.35954 406.75959 21.35133
166.37132 406.33185 21.357714
166.3831 405.90414 21.364094
166.39487 405.47648 21.370481
166.40665 405.04887 21.376859
166.41843 404.6213 21.383241
166.43021 404.19377 21.389621
166.44199 403.76629 21.396001
166.45377 403.33884 21.40238
166.19975 402.5025 23.561508
165.94676 401.66967 25.711744
165.95851 401.24419 25.717944
165.97026 400.81875 25.724144
166.27531 400.20168 26.775019
166.98597 394.88617 25.763978
166.73198 394.07221 27.903048
166.94696 391.29758 26.879604
167.23677 390.83127 24.756177
167.24852 390.40642 24.762403
167.26028 389.98162 24.768632
166.71303 389.35729 25.868868
166.45983 388.55576 28.006131
166.47157 388.13245 28.01223
166.48332 387.70916 28.018331
166.42886 387.19237 28.55669
166.37461 386.67636 29.093343
166.38634 386.25366 29.099402
166.39808 385.83098 29.10546
166.7009 385.14435 26.979368
166.98827 384.55928 24.868223
167.29141 383.85489 25.924505
167.30317 383.43115 25.930682
167.31493 383.00745 25.93686
167.32669 382.58378 25.943036
167.33845 382.16016 25.949216
167.35022 381.73657 25.955391
167.36198 381.31302 25.961569
167.307 380.79924 26.50161
167.25219 380.28618 27.04019
167.26394 379.8632 27.046326
167.2757 379.44026 27.052457
167.28746 379.01736 27.058592
167.29922 378.5945 27.064725
167.31098 378.17167 27.070859
167.32274 377.74888 27.076995
167.3345 377.32613 27.083126
167.34627 376.90342 27.089257
167.35803 376.48075 27.095388
167.3698 376.05812 27.101517
167.38156 375.63553 27.107646
167.67944 373.37405 28.704071
167.62147 372.34576 29.251652
167.63321 371.92437 29.257703
167.64496 371.50301 29.263754
167.6567 371.08169 29.2698
167.66845 370.66041 29.275849
167.6802 370.23916 29.281901
167.69194 369.81794 29.287949
167.80784 368.53114 28.767941
167.61709 367.19139 27.230194
167.70815 366.53573 26.704429
167.7861 366.09064 26.183622
167.7979 365.66847 26.189783
167.8097 365.24634 26.195947
167.9009 364.58924 25.669279
167.97908 364.14287 25.147522
167.6995 363.87303 24.107798
167.71062 363.23847 24.124125
167.78938 362.89641 23.595863
167.80213 362.68543 23.590355
167.88096 362.34294 23.061531
167.89281 361.91979 23.067803
167.90466 361.49666 23.074072
167.79385 359.90008 20.983774
167.80575 359.47624 20.990097
167.81766 359.05244 20.996426
167.89671 358.70742 20.465111
167.9093 358.4959 20.459676
167.98842 358.15045 19.927839
168.00032 357.72631 19.934213
168.07888 357.06187 19.418829
167.87768 356.54296 17.825073
167.88964 356.11805 17.83151
167.90159 355.69319 17.837939
167.98075 355.23931 17.310274
168.00564 354.81449 17.299532
168.0845 354.14746 16.779872
168.09647 353.7223 16.786336
168.10844 353.29719 16.792796
167.89439 353.0904 15.193024
167.97414 352.74091 14.654358
167.98614 352.31498 14.660892
167.99815 351.88908 14.667426
168.07778 351.53863 14.129871
168.0901 351.32597 14.124539
168.16972 350.76181 13.596741
168.18174 350.33558 13.603307
168.19376 349.9094 13.609872
168.20578 349.48324 13.61643
168.2856 349.13132 13.077905
168.07131 348.91757 11.465065
168.08337 348.49059 11.471698
168.09542 348.06364 11.478326
168.10748 347.63672 11.484954
168.18742 347.28322 10.944235
168.26763 346.92957 10.40142
168.27971 346.5023 10.408082
168.29178 346.07505 10.414742
168.30385 345.64784 10.421399
168.38397 345.29305 9.8796837
168.46437 344.9381 9.3358586
168.47646 344.51053 9.3425449
168.48855 344.08299 9.3492344
168.50064 343.65548 9.3559232
168.28578 343.43222 7.7332122
168.36629 343.07566 7.1872143
168.37841 342.64731 7.1939686
168.39054 342.219 7.2007186
168.40266 341.79073 7.2074716
168.41479 341.36248 7.2142242
168.49522 341.00457 6.6692862
168.57591 340.64649 6.1222933
168.58806 340.21788 6.1290761
168.6002 339.7893 6.1358547
168.6808 339.43027 5.5898963
168.76168 339.07108 5.0418491
168.47786 338.77037 3.9607328
168.49004 338.34098 3.9675769
168.50222 337.91161 3.9744205
168.5144 337.48228 3.9812599
168.59513 337.12142 3.4330531
168.67612 336.76038 2.8828364
168.68832 336.33068 2.8897026
168.70052 335.90101 2.8965721
168.71271 335.47137 2.9034373
168.3823 334.70562 5.6830603
169.14106 331.62388 13.868554
169.15312 331.19907 13.875063
169.16519 330.77429 13.881571
169.10902 330.28536 14.432202
169.05282 329.7969 14.982978
169.13306 329.43631 14.445886
168.87282 328.75856 16.623119
169.45394 326.41445 22.5083
169.46591 325.99355 22.514538
169.47787 325.57267 22.52078
169.48984 325.15182 22.52702
169.50182 324.731 22.53326
169.51379 324.3102 22.539496
169.52576 323.88944 22.545732
169.53774 323.4687 22.551974
169.54972 323.04798 22.558212
169.56169 322.6273 22.564446
169.57367 322.20664 22.57068
169.31428 321.54976 24.714735
169.63275 320.68353 28.923198
169.94401 319.74287 29.968973
169.9559 319.32546 29.97499
169.96779 318.90807 29.98101
169.97968 318.49072 29.987029
169.7042 318.17647 28.959497
169.81821 316.87336 28.440481
169.89922 316.19971 27.931339
169.91115 315.78165 27.937418
169.92308 315.36361 27.943495
169.93501 314.9456 27.949576
169.94695 314.52762 27.955653
169.95888 314.10966 27.961732
169.97082 313.69172 27.967808
170.05065 313.32826 27.443733
170.52697 311.87989 33.71195
170.20117 311.19967 36.327405
170.21301 310.78537 36.333253
170.1574 310.31864 36.860265
170.25173 309.65511 39.438803
170.4247 308.63463 41.492532
170.43647 308.22261 41.498247
170.44826 307.81061 41.503961
170.46004 307.39863 41.509677
170.47182 306.98668 41.51539
170.55094 306.62502 41.004727
170.62997 306.26289 40.494842
170.64177 305.85058 40.500588
170.65356 305.43829 40.506331
170.66536 305.02603 40.512077
170.67717 304.61379 40.517826
170.40543 304.28892 39.512697
170.70077 303.78938 40.529322
170.42908 303.46369 39.524249
170.4409 303.05111 39.530024
170.52018 302.68689 39.01735
170.59935 302.32217 38.505601
170.61119 301.90923 38.511403
170.62303 301.49631 38.517209
170.70247 301.13099 38.003591
170.49754 300.84918 36.473759
170.57708 300.4828 35.958072
170.65652 300.11593 35.443295
170.66841 299.70182 35.449181
170.6803 299.28774 35.45507
170.76001 298.92025 34.938433
170.77172 298.50587 34.94573
170.71597 298.04562 35.47273
170.72787 297.63163 35.478624
170.73976 297.21765 35.48451
170.61844 296.50647 36.541809
170.9263 295.60098 37.570304
170.93313 293.56593 47.289382
171.15842 293.03907 48.797841
171.17017 292.63084 48.803398
171.18193 292.22263 48.808954
171.19369 291.81444 48.814513
171.20545 291.40627 48.820075
171.21722 290.99812 48.825637
171.22898 290.58999 48.831195
171.24075 290.18188 48.836762
171.25251 289.77379 48.842326
171.26428 289.36572 48.84789
171.27605 288.95767 48.853459
171.35495 288.59019 48.35156
171.43403 288.22242 47.848351
171.44581 287.81401 47.853944
171.4576 287.40562 47.85954
171.25606 287.10585 46.360555
171.33525 286.73663 45.855374
171.34707 286.32745 45.86102
171.35889 285.91829 45.86667
171.37071 285.50915 45.872316
171.38254 285.10003 45.877965
171.32706 284.65227 46.393618
171.27155 284.20494 46.909448
171.28336 283.7963 46.915078
171.29518 283.38767 46.920711
171.30701 282.97906 46.926343
171.59917 282.50643 47.926777
171.61098 282.09829 47.932392
171.62279 281.69016 47.938006
171.6346 281.28206 47.943616
171.64641 280.87397 47.949233
171.65822 280.4659 47.954849
171.67004 280.05785 47.960465
171.61453 279.61381 48.474003
171.55902 279.17022 48.987459
171.57083 278.76264 48.993059
171.58264 278.35508 48.998663
171.59445 277.94754 49.004263
171.60627 277.54001 49.009862
171.61809 277.1325 49.015468
171.6299 276.72501 49.021074
171.64172 276.31753 49.026682
171.65355 275.91007 49.03229
171.66537 275.50263 49.037898
171.67719 275.09521 49.043512
171.68902 274.6878 49.049123
171.70085 274.28041 49.054736
171.78003 273.90609 48.552953
171.85932 273.5314 48.050513
171.87116 273.12364 48.05615
171.883 272.7159 48.06179
171.89485 272.30818 48.067432
171.9067 271.90047 48.073072
171.91855 271.49278 48.078717
171.9304 271.08511 48.084362
171.94226 270.67745 48.090007
171.95411 270.2698 48.095655
171.68613 269.91304 47.107182
171.69801 269.50501 47.112853
171.71153 268.99534 47.123328
171.72015 268.7906 47.119909
171.73364 268.281 47.129875
171.74552 267.87303 47.135549
172.03714 267.41675 48.135221
172.04901 267.00924 48.140876
171.78118 266.6492 47.152581
171.79306 266.2413 47.158263
172.08463 265.78678 48.157857
172.09651 265.37933 48.163518
172.10838 264.97189 48.169181
172.12026 264.56446 48.174848
172.13214 264.15705 48.180515
172.14403 263.74966 48.186184
172.15591 263.34228 48.19185
172.16779 262.93491 48.197519
172.17968 262.52756 48.203194
172.19157 262.12022 48.208866
172.20346 261.7129 48.214537
172.21535 261.30559 48.220211
172.22725 260.8983 48.225889
172.23915 260.49102 48.231566
172.25104 260.08376 48.237246
172.26294 259.67651 48.242926
172.27484 259.26927 48.248605
172.35447 258.88744 47.745953
172.15458 258.54429 46.247532
172.16651 258.13626 46.253256
172.17845 257.72823 46.25898
172.19038 257.32022 46.264707
172.27014 256.93667 45.760038
172.3499 256.55271 45.255364
172.36186 256.14432 45.261115
172.09366 255.77223 44.26711
172.10564 255.36344 44.272878
172.11761 254.95466 44.278649
172.35168 254.18106 45.797446
172.3079 253.3423 46.317969
172.61111 252.49375 47.324906
172.34572 252.0173 46.339243
172.35768 251.60947 46.344982
172.36965 251.20165 46.350729
172.45959 250.50864 45.847026
172.55131 249.71336 45.349202
172.49732 249.1832 45.869887
172.44146 248.75502 46.385211
172.45344 248.34729 46.390962
172.84484 244.83649 47.433279
172.60928 243.04784 46.465836
172.62128 242.64026 46.471604
172.70135 242.24962 45.966957
173.17228 240.54096 49.000153
172.99046 239.68624 50.525425
172.83191 238.09111 49.043064
172.92016 237.29704 48.557352
172.93216 236.89045 48.563104
173.03188 235.88603 48.0635
173.11629 235.29078 47.570365
173.12831 234.88382 47.57614
173.5019 229.67989 61.084549
173.47403 228.36344 61.587887
173.48592 227.9624 61.593477
173.7096 227.3467 63.064066
173.67241 226.33559 63.564938
173.68429 225.9354 63.570515
173.69617 225.53522 63.576092
173.70806 225.13504 63.581675
173.71994 224.73487 63.587258
173.67282 224.02985 64.097949
173.9175 222.71879 65.556164
173.92937 222.31947 65.561737
173.94124 221.92016 65.567314
173.95312 221.52086 65.57289
173.965 221.12156 65.57847
173.97688 220.72227 65.584052
173.98876 220.32298 65.589634
174.00064 219.9237 65.595223
174.07993 219.52958 65.110723
174.15937 219.13508 64.625272
174.17127 218.73541 64.630878
174.18317 218.33575 64.636486
174.19508 217.9361 64.642097
174.20698 217.53645 64.647708
174.01364 217.13688 63.201727
174.0932 216.7404 62.714406
174.10514 216.33995 62.720051
174.11708 215.93952 62.725696
174.06143 215.53593 63.223882
174.00578 215.13275 63.721956
172.79515 213.70986 72.915027
176.03861 211.80072 84.329708
175.0369 210.158 94.455525
174.98541 209.67434 94.925003
174.99698 209.28731 94.93035
175.00855 208.90028 94.935699
175.02012 208.51326 94.941051
175.0317 208.12624 94.946412
175.30628 207.75227 95.848824
175.05486 207.35221 94.95714
175.06644 206.9652 94.962506
175.34099 206.59238 95.864903
175.35257 206.20576 95.870275
175.36414 205.81914 95.875646
175.37572 205.43253 95.881027
175.3873 205.04591 95.886407
175.39888 204.65931 95.891793
175.41047 204.2727 95.897182
175.42205 203.88609 95.902577
175.17078 203.48226 95.011029
175.18238 203.09528 95.01644
175.45682 202.7263 95.918788
175.27176 202.31794 94.565587
175.34949 201.92721 94.109648
175.36112 201.53986 94.115087
175.37274 201.15251 94.120528
175.38437 200.76517 94.125972
175.396 200.37783 94.131422
175.47395 199.98597 93.674316
175.55187 199.59373 93.217609
175.56351 199.20602 93.223084
175.57516 198.8183 93.228556
175.32335 198.40829 92.331765
175.33501 198.0202 92.337253
175.34668 197.63211 92.34275
175.42477 197.23814 91.883889
175.50282 196.8438 91.425482
175.5145 196.45534 91.430999
175.52619 196.06687 91.436518
175.53788 195.67841 91.44204
175.54957 195.28995 91.447568
175.56126 194.90148 91.453099
175.57295 194.51302 91.458635
175.65125 194.11715 90.998925
175.72949 193.72091 90.539776
175.7412 193.33208 90.545329
175.75291 192.94324 90.550888
175.76463 192.5544 90.55645
175.77635 192.16557 90.562019
175.59075 191.73916 89.192896
175.66911 191.34098 88.732014
175.68085 190.95138 88.737605
175.69261 190.56177 88.743203
175.77121 190.1628 88.280851
175.84973 189.76345 87.819156
175.59678 189.34201 86.911665
175.60857 188.95164 86.917289
175.68728 188.55108 86.453131
175.76592 188.15015 85.989655
175.77772 187.75939 85.9953
175.78952 187.36864 86.00095
175.86841 186.9669 85.53592
175.94721 186.5648 85.071625
175.69364 186.13891 84.158656
175.70548 185.74737 84.164333
175.91393 183.28371 80.434111
175.99335 182.87755 79.963643
175.80583 182.43234 78.564103
175.88535 182.02493 78.091778
175.96476 181.61716 77.620266
175.70926 181.18287 76.692398
175.78889 180.77402 76.2182
175.93621 180.35042 75.263956
175.81555 179.8845 73.367539
175.89532 179.47361 72.891375
175.90733 179.07734 72.897176
175.91935 178.68108 72.902986
175.86341 178.30027 73.392055
175.80771 177.9198 73.879323
175.9818 176.74462 84.304068
176.14016 175.84185 86.174468
176.08503 175.46764 86.649167
176.29405 175.13947 88.037515
176.23894 174.76634 88.510407
176.44733 174.43986 89.893239
176.45918 174.05059 89.898984
176.4041 173.67872 90.370089
176.34891 173.30725 90.841848
176.36076 172.91835 90.8476
176.30577 172.54739 91.317857
176.51347 172.22512 92.692407
176.5253 171.83698 92.698165
176.47034 171.46726 93.16665
176.41529 171.09795 93.635673
176.68922 170.75982 94.541525
176.70103 170.37243 94.547286
176.64608 170.00414 95.014022
176.59106 169.63624 95.481209
176.60287 169.24921 95.486981
176.61469 168.86218 95.492761
176.55983 168.49497 95.958671
176.50491 168.12815 96.424979
176.77798 167.7939 97.3254
176.72315 167.42792 97.789567
176.66826 167.06232 98.254064
176.68005 166.6764 98.259854
176.69185 166.29047 98.265653
176.96423 165.95866 99.162539
176.90941 165.59426 99.624992
176.85455 165.23024 100.08768
176.86633 164.84505 100.09349
176.87811 164.45985 100.0993
176.82339 164.09651 100.56094
176.76862 163.73355 101.02277
177.04017 163.40518 101.91432
176.98546 163.04304 102.37424
176.93073 162.68128 102.83428
176.94249 162.29718 102.84011
176.95426 161.91307 102.84595
176.89965 161.55198 103.30507
177.10398 161.24967 104.64468
177.11573 160.86629 104.65053
177.12748 160.48291 104.65637
177.07288 160.1232 105.11381
177.01828 159.76385 105.57123
177.03003 159.38081 105.5771
177.30007 159.05821 106.45991
177.24549 158.69986 106.91566
177.19091 158.34186 107.37133
177.20265 157.95955 107.37721
177.14817 157.60206 107.83216
177.3512 157.30687 109.15873
177.36292 156.92528 109.16461
177.30846 156.56895 109.61789
177.25402 156.21298 110.071
177.26574 155.83173 110.07689
177.46816 155.53978 111.39683
177.41375 155.18496 111.84821
177.36367 154.73607 112.30249
177.57288 154.16084 113.61868
177.51857 153.8075 114.06785
177.65381 153.54624 115.81811
177.59957 153.19402 116.26527
177.61123 152.81528 116.27121
177.55704 152.46357 116.71794
177.69182 152.20559 118.4582
177.63771 151.855 118.90288
177.83769 151.57145 120.1978
177.7253 150.96605 121.08056
177.86339 150.61874 122.80728
177.75124 150.01593 123.68524
177.95436 149.64326 124.96945
177.90049 149.29632 125.40815
177.78135 148.9781 126.27825
177.97956 148.70083 127.55223
177.93301 148.07413 127.99172
178.07691 147.45417 129.69568
178.02764 147.01735 130.13267
178.18067 145.93261 131.83576
178.27456 144.88553 133.95618
178.16491 144.39023 134.81569
178.36079 144.1219 136.06578
178.37227 143.75111 136.07185
178.32584 143.13237 136.50385
178.47472 142.24881 138.1802
178.43031 141.72682 138.61161
178.38394 141.11066 139.04144
178.33522 140.68109 139.46977
178.34668 140.3116 139.47591
178.60604 140.01817 140.29487
178.56657 139.12619 140.72715
178.52242 138.607 141.15621
178.53388 138.23814 141.16239
178.54533 137.86927 141.16858
178.55679 137.5004 141.17477
178.56826 137.13151 141.18097
178.57972 136.76261 141.18718
178.59118 136.39371 141.19339
178.68156 135.43532 140.78608
178.76663 134.84902 140.38162
178.53037 134.39844 139.57506
178.54187 134.02878 139.58132
178.55337 133.65912 139.58757
178.63678 132.97592 139.17612
178.71764 132.47876 138.76661
178.72916 132.10871 138.77289
178.74069 131.73864 138.77919
178.57595 130.9691 137.55034
178.65698 130.47001 137.13931
178.66854 130.09921 137.14563
178.74521 129.69132 136.72956
178.82183 129.2831 136.31389
178.65672 128.50777 135.07803
178.62631 127.56153 132.99127
178.77304 127.01978 132.15081
178.78468 126.6468 132.15717
178.86184 126.23488 131.73643
178.93893 125.82264 131.31618
178.77302 125.03778 130.06607
178.85491 124.53152 129.6482
178.69556 123.46113 128.39617
178.78231 122.86054 127.98028
178.85984 122.44477 127.55556
178.93729 122.02868 127.13143
178.94903 121.65343 127.13786
178.78929 120.57561 125.87863
178.87644 119.97185 125.4604
178.96118 119.27035 125.03579
178.7918 118.66043 123.77006
178.8036 118.28365 123.77653
178.81541 117.90685 123.783
178.90025 117.2029 123.35679
178.98299 116.68883 122.93268
178.76087 113.11655 119.96053
179.01752 111.67469 118.68721
179.02943 111.29551 118.69376
172.80002 299.06866 33.0932
174.72243 243.28062 37.165238
176.98276 176.98413 74.310915
247.20391 383.39653 -20.980612
247.09971 382.64796 -20.407819
246.99841 382.11546 -19.836495
247.11501 381.40015 -18.09287
247.1249 380.961 -18.084646
247.02379 380.43068 -17.51576
246.9226 379.9008 -16.946475
247.03925 379.19155 -15.213868
246.93831 378.66362 -14.647334
246.9482 378.22611 -14.639258
247.17515 377.61062 -13.470302
247.07442 377.08462 -12.906247
246.97377 376.55919 -12.342612
246.99929 374.90001 -10.056473
246.89894 374.37732 -9.4958438
246.79882 373.85532 -8.9364252
246.94512 370.64199 -2.7296746
246.51692 369.76718 -0.54605218
246.30894 369.06429 0.54154628
246.24501 366.28079 5.5193937
246.25487 365.85261 5.5266077
246.26474 365.42447 5.5338183
246.27461 364.99636 5.5410289
246.49817 364.40858 6.6634282
246.50804 363.98102 6.6705998
246.51791 363.55351 6.6777642
246.52778 363.12602 6.6849296
246.53767 362.69858 6.6920986
246.54755 362.27117 6.6992608
246.55745 361.84379 6.7064306
246.4591 361.33731 7.2484518
246.36102 360.83152 7.7890858
246.37093 360.4047 7.796215
246.38084 359.97791 7.8033369
246.39075 359.55115 7.8104598
246.40067 359.12444 7.8175829
246.40873 358.48882 7.8263307
247.9214 352.16088 -5.1324635
247.93155 351.72938 -5.1249629
247.94171 351.29791 -5.1174616
247.95187 350.86648 -5.1099599
247.96203 350.43508 -5.1024651
248.08243 350.07777 -5.6421828
248.20282 349.72002 -6.181798
248.21301 349.28826 -6.1742688
248.2232 348.85654 -6.1667389
248.2334 348.42484 -6.1592124
248.24361 347.99318 -6.1516852
248.25381 347.56155 -6.1441575
248.47771 346.98806 -4.9960347
248.48791 346.55699 -4.9885514
248.49812 346.12595 -4.9810675
248.5072 345.48386 -4.9712591
248.51744 345.05291 -4.9638514
248.52769 344.62199 -4.9564394
248.53794 344.1911 -4.9490305
248.5482 343.76024 -4.9416211
248.55846 343.32941 -4.9342148
248.56873 342.89862 -4.9268116
248.57901 342.46786 -4.9194078
248.58929 342.03713 -4.9120072
248.59958 341.60643 -4.904606
248.60987 341.17577 -4.8972078
248.83316 340.61061 -3.7521594
248.84345 340.18049 -3.7447978
248.85374 339.7504 -3.7374394
248.86404 339.32035 -3.730084
248.87434 338.89032 -3.7227282
248.88465 338.46033 -3.7153753
248.89497 338.03037 -3.708022
248.90529 337.60043 -3.7006679
248.91562 337.17053 -3.693317
248.92595 336.74066 -3.6859656
248.93629 336.31082 -3.6786172
248.94663 335.88101 -3.6712719
248.95698 335.45123 -3.6639297
248.96733 335.02148 -3.6565832
248.97769 334.59176 -3.6492397
248.87727 333.8863 -3.0955415
248.77726 333.39174 -2.5438635
248.78765 332.96259 -2.5366237
248.79805 332.53346 -2.5293908
248.80845 332.10437 -2.5221535
249.14125 331.61524 -1.9247717
249.26211 331.25037 -2.460907
249.16223 330.75781 -1.9111818
249.17251 330.32902 -1.9033283
249.29336 329.96353 -2.4392187
249.30379 329.53464 -2.4319904
249.31422 329.10578 -2.4247689
249.32466 328.67695 -2.4175432
249.3351 328.24814 -2.4103204
249.34555 327.81937 -2.403097
249.35601 327.39062 -2.3958768
249.15443 327.08088 -3.5227709
249.16491 326.65171 -3.5155194
249.1754 326.22257 -3.5082635
249.29651 325.8546 -4.045888
249.41757 325.48619 -4.5831968
249.42808 325.05668 -4.5759142
249.4386 324.62719 -4.5686346
249.44912 324.19774 -4.5613581
249.57056 323.82848 -5.1002598
249.69185 323.45872 -5.6382947
249.70239 323.02889 -5.6309838
249.76526 320.89925 -7.8282667
249.77589 320.46867 -7.8209671
249.8977 320.09639 -8.3620444
250.01989 319.61841 -8.902067
250.04112 318.86194 -8.8898652
250.05178 318.43104 -8.8825409
250.17393 318.05745 -9.4249193
250.30696 317.25223 -9.9607804
250.10524 316.92936 -11.104219
250.11595 316.49764 -11.096835
250.23848 316.12237 -11.641799
250.36107 315.74669 -12.186967
250.37181 315.31459 -12.179556
250.38255 314.88252 -12.172152
250.5054 314.50611 -12.718378
250.62822 314.12925 -13.264375
250.63899 313.6968 -13.256943
250.64976 313.26438 -13.24951
250.66054 312.83198 -13.24208
250.78373 312.45423 -13.78963
250.6942 312.17944 -15.496962
250.70502 311.74616 -15.489469
250.82881 311.15449 -16.033555
251.09793 309.42105 -17.115211
251.23256 308.7125 -17.662998
251.24346 308.27852 -17.655528
251.36754 307.7906 -18.202859
251.50239 307.08059 -18.751358
251.51332 306.64625 -18.74387
251.63751 306.26347 -19.296171
251.76188 305.88033 -19.849334
251.77284 305.44559 -19.841823
251.78381 305.01088 -19.83431
251.69573 304.7225 -21.562203
251.82037 304.33776 -22.117472
251.8424 303.46659 -22.102341
251.96728 303.08108 -22.658574
252.09215 302.69512 -23.214701
252.10319 302.25915 -23.20711
252.11424 301.8232 -23.199526
252.23945 301.43651 -23.75708
252.36457 301.04933 -24.314067
252.37564 300.61298 -24.306457
252.38672 300.17666 -24.298851
252.51226 299.78878 -24.857735
252.63762 299.40038 -25.415584
252.43729 298.83893 -26.588596
252.56286 298.44943 -27.148412
252.68886 298.05965 -27.710247
252.70003 297.62205 -27.702641
252.7112 297.18447 -27.695039
252.83711 296.79377 -28.256197
252.96335 296.40275 -28.818906
252.97455 295.96477 -28.811286
252.98576 295.52681 -28.803661
252.99697 295.08887 -28.796043
252.91034 294.78173 -30.553261
253.03684 294.38884 -31.118064
253.0481 293.94999 -31.110396
253.05936 293.51116 -31.102723
253.18601 293.11743 -31.667992
253.31276 292.72329 -32.233677
253.32405 292.28405 -32.22599
253.33535 291.84484 -32.218302
253.34665 291.40565 -32.21062
253.47366 291.01049 -32.77731
253.60066 290.61487 -33.343806
253.61199 290.17526 -33.336106
253.41024 289.81524 -34.532063
253.4216 289.37518 -34.524337
253.54902 288.97817 -35.093821
253.67629 288.58064 -35.662435
253.68768 288.14016 -35.654686
253.70095 287.48384 -35.641141
253.82839 287.08536 -36.21031
253.95627 286.68659 -36.781617
253.96772 286.24574 -36.773931
253.76585 285.88016 -37.97777
253.89367 285.48002 -38.549699
254.02184 285.07955 -39.12324
254.03334 284.63778 -39.11551
254.04483 284.19604 -39.107783
254.05634 283.75431 -39.100067
254.06785 283.31261 -39.092346
254.07937 282.87092 -39.084631
254.20762 282.46889 -39.65814
254.33602 282.06645 -40.232348
254.34757 281.62434 -40.224615
254.35912 281.18226 -40.216885
254.37068 280.74019 -40.209158
254.28584 280.40588 -42.004898
254.41453 280.00148 -42.581284
254.42613 279.55848 -42.573513
254.43775 279.11549 -42.565741
254.44936 278.67253 -42.557976
254.5784 278.2671 -43.135819
254.70734 277.86117 -43.713043
254.71898 277.41778 -43.705258
254.73064 276.97441 -43.697481
254.74229 276.53106 -43.68971
254.87385 275.90666 -44.260703
254.78978 275.563 -46.070722
254.8015 275.11872 -46.062988
254.81324 274.67446 -46.055253
254.82497 274.23021 -46.047525
254.95449 273.82113 -46.628027
255.08434 273.41168 -47.210135
255.09611 272.96701 -47.202391
255.10788 272.52235 -47.194651
255.23775 272.11197 -47.776598
255.36786 271.7012 -48.359644
255.37966 271.25611 -48.351889
255.39147 270.81103 -48.344144
255.52291 270.29035 -48.922831
255.31852 270.12071 -50.163484
255.46058 269.26188 -50.740017
255.47388 268.70683 -50.729169
255.60454 268.29317 -51.315509
255.7352 267.87904 -51.901742
255.74709 267.43261 -51.893951
255.759 266.98619 -51.886158
255.77091 266.53979 -51.878373
255.78283 266.0934 -51.870586
255.79476 265.64704 -51.86281
255.80669 265.20069 -51.855032
255.82325 264.42659 -51.835272
255.94732 263.12969 -49.970638
256.09434 261.26006 -48.120315
256.10632 260.8154 -48.112742
252.85709 259.38979 -31.85878
253.06126 256.90692 2.272161
253.16733 256.4191 3.934683
253.06744 255.97191 4.4750558
253.08212 255.34199 4.4884858
253.09361 254.91927 4.4949609
253.10511 254.49656 4.5014295
253.32246 254.03701 5.6232337
253.33395 253.6148 5.6296872
253.34546 253.1926 5.6361342
253.35696 252.77041 5.6425859
253.36848 252.34824 5.6490348
253.38 251.92608 5.6554846
253.39153 251.50393 5.6619317
253.40306 251.0818 5.6683797
253.52611 250.68113 5.1418057
253.64933 250.28006 4.6145114
253.54923 249.83648 5.1546304
253.44925 249.39338 5.6941736
253.46082 248.9713 5.7006153
253.47238 248.54924 5.7070615
253.48396 248.12719 5.7135123
253.49554 247.70515 5.7199566
253.50713 247.28313 5.726402
253.51872 246.86111 5.7328483
253.53033 246.43911 5.739292
253.54193 246.01712 5.7457364
253.55354 245.59514 5.7521782
253.56516 245.17317 5.758621
253.58053 244.54447 5.7725116
253.59218 244.12253 5.7788834
253.60384 243.70061 5.7852633
253.72699 243.29631 5.2592907
253.73891 242.87423 5.2645151
253.63885 242.4349 5.8043833
253.76208 242.02998 5.2782417
253.88561 241.62468 4.7507629
253.89732 241.20238 4.7571499
253.90903 240.7801 4.7635414
253.92075 240.35782 4.7699267
253.82073 239.91966 5.3096356
253.83243 239.49762 5.316133
254.1608 239.07084 5.9038158
253.96769 238.66881 4.7954808
253.97944 238.24659 4.8018672
253.99119 237.82437 4.8082545
254.00296 237.40216 4.8146428
254.10764 236.94775 6.4681588
254.00779 236.51215 7.0057694
254.13134 236.10478 6.4800324
254.2548 235.69697 5.954763
254.06186 235.29128 4.8465664
254.07366 234.86913 4.8529497
254.29016 234.43192 5.9738661
254.30623 233.80373 5.988261
254.31805 233.38208 5.9945575
254.32988 232.96045 6.0008585
254.34172 232.53882 6.0071569
254.35357 232.1172 6.0134526
254.36542 231.69559 6.0197494
254.37728 231.27399 6.0260436
254.29649 230.87467 4.3845437
254.42057 230.46341 3.8562162
254.43247 230.04093 3.8625421
254.44438 229.61845 3.8688691
254.5706 229.10299 3.3458085
254.59238 228.36099 3.353048
254.49207 227.92863 3.8941687
254.50401 227.5062 3.9004935
254.51595 227.08377 3.9068192
254.5279 226.66135 3.9131424
254.53986 226.23894 3.9194629
254.65335 225.48373 5.5793728
254.55588 224.95092 6.1204625
254.56784 224.52944 6.1267545
254.5798 224.10797 6.1330475
254.59177 223.68651 6.1393415
254.60856 223.05869 6.154224
254.50875 222.63032 6.6916023
254.40875 222.20239 7.2298492
254.62462 221.7804 8.3453213
254.63661 221.35988 8.3515154
254.64862 220.93936 8.357707
254.66063 220.51886 8.3639068
254.67264 220.09835 8.3701004
254.68467 219.67786 8.376295
254.58497 219.2522 8.9118611
254.4853 218.82698 9.4472187
254.49733 218.40694 9.4534043
254.50937 217.9869 9.4595874
254.63311 217.57116 8.9366785
254.75694 217.155 8.4134626
255.32953 216.75395 5.764865
255.22966 216.32875 6.3014092
255.24128 215.90742 6.3099156
254.69334 215.46999 8.9681336
255.15303 215.06179 6.8548994
255.7281 214.65472 4.195635
255.74025 214.23255 4.2018808
255.75241 213.81039 4.2081205
255.76457 213.38823 4.2143649
255.77675 212.96607 4.2206032
255.79427 212.33733 4.2360769
255.80648 211.91519 4.2422472
255.93144 211.49422 3.7148498
256.05681 211.07283 3.185606
256.06904 210.65026 3.1917878
255.87804 210.21583 2.0769478
256.09353 209.80515 3.2041477
256.10579 209.3826 3.2103293
256.11805 208.96005 3.2165048
256.01732 208.53787 3.7571984
255.91661 208.11612 4.2977707
255.92888 207.69403 4.3039374
255.82833 207.27295 4.8437379
255.93068 206.86787 6.4966804
255.94294 206.44669 6.5028258
255.84256 206.02717 7.0405172
255.94475 205.62498 8.686133
255.957 205.20471 8.692257
255.85681 204.78674 9.2278525
255.7569 204.3692 9.7620515
255.97108 203.96807 10.872288
255.87106 203.55163 11.405804
255.77142 203.13562 11.937503
255.56574 202.51865 13.004135
255.77953 202.12085 14.107126
255.68024 201.70668 14.635932
255.58077 201.29294 15.165509
255.59304 200.87534 15.171507
255.60531 200.45775 15.177502
255.61759 200.04016 15.183499
255.83093 199.64594 16.281757
255.84321 199.22881 16.287747
255.85549 198.81168 16.293735
255.86778 198.39456 16.299723
255.88008 197.97743 16.305716
255.89238 197.56031 16.311703
255.90469 197.14319 16.317695
255.71604 196.69951 15.231495
255.72838 196.28193 15.237497
255.94165 195.89184 16.33567
255.75307 195.44679 15.249498
255.76543 195.02921 15.255501
255.97868 194.6405 16.353647
255.99103 194.22339 16.359642
256.00339 193.80628 16.365636
256.01576 193.38917 16.37163
255.91639 192.98039 16.899489
255.913 192.40811 19.041091
255.70299 192.00968 20.08336
255.60418 191.60309 20.607319
255.81661 191.22018 21.693719
255.71817 190.81463 22.214831
255.61962 190.4095 22.736369
255.52472 189.90372 23.261366
255.63507 189.22093 24.856451
255.64743 188.8073 24.862324
255.54931 188.40425 25.380625
255.45128 188.0016 25.898539
255.66288 187.62459 26.973487
255.67523 187.21183 26.979352
255.57727 186.81043 27.495753
255.47951 186.40942 28.011227
255.49187 185.99708 28.017087
255.50423 185.58474 28.022952
255.51661 185.17239 28.028817
255.52899 184.76004 28.034684
255.54137 184.3477 28.040552
255.55377 183.93535 28.046421
253.02328 181.79292 68.845359
253.03524 181.39741 68.850955
253.14473 180.75846 70.304427
253.0558 180.28117 70.781107
253.06776 179.88644 70.786707
253.07972 179.4917 70.792308
253.0917 179.09696 70.797916
253.29689 178.746 71.777738
253.30885 178.35167 71.783347
253.32083 177.95733 71.788959
253.33281 177.563 71.794575
253.35168 176.97595 71.810233
253.3637 176.58161 71.815801
253.37572 176.18726 71.821376
253.38774 175.79291 71.826955
253.39977 175.39856 71.832538
253.41181 175.0042 71.838122
252.17057 171.16605 97.738886
252.1859 170.68883 97.748851
252.1977 170.3051 97.754398
252.11543 169.75249 98.211754
252.2285 169.35019 97.775456
252.24033 168.96645 97.780975
252.44112 168.63546 98.706091
252.35194 168.2713 99.151416
252.26265 167.90752 99.597206
252.27448 167.52451 99.602738
252.28631 167.1415 99.608272
252.29815 166.75848 99.613813
252.31 166.37545 99.619358
252.32185 165.99243 99.62491
252.33371 165.60939 99.630468
252.35745 164.84331 99.641598
252.36932 164.46026 99.64717
252.56968 164.13439 100.56873
252.58156 163.75172 100.57431
252.59344 163.36904 100.5799
252.60532 162.98636 100.58549
252.61722 162.60367 100.59109
252.62911 162.22097 100.59669
252.64102 161.83827 100.60229
252.65293 161.45557 100.60791
252.66484 161.07286 100.61352
252.67676 160.69014 100.61915
252.69637 160.12059 100.6352
252.70833 159.73786 100.64079
252.72029 159.35512 100.64638
252.73225 158.97238 100.65198
252.74422 158.58963 100.65758
252.7562 158.20687 100.66319
252.76818 157.82411 100.6688
252.78017 157.44134 100.67442
252.79216 157.05857 100.68005
252.7031 156.70039 101.12403
252.71505 156.31779 101.12988
252.82817 155.9102 100.69695
252.84415 155.43415 100.70815
252.84824 155.23785 100.70313
252.86424 154.76178 100.7139
252.87627 154.37896 100.71957
252.89635 153.7065 100.72588
252.91241 153.23045 100.73658
252.92447 152.8476 100.74227
252.93653 152.46474 100.74796
252.9486 152.08187 100.75365
252.96067 151.699 100.75935
252.97275 151.31612 100.76505
252.99302 150.74647 100.78176
253.00513 150.36357 100.78743
253.01725 149.98066 100.79311
253.02938 149.59775 100.79878
253.04151 149.21482 100.80447
253.05364 148.83189 100.81016
253.16702 148.42049 100.37731
253.28065 148.00864 99.943399
253.29282 147.62533 99.949104
253.30499 147.24201 99.954816
253.31717 146.85867 99.960531
253.32935 146.47533 99.966256
253.44307 146.06236 99.53231
253.5569 145.64899 99.097964
253.38128 145.18892 98.184234
253.49529 144.7745 97.748451
253.71133 144.32915 96.870148
253.82559 143.91375 96.433496
253.64978 143.45054 95.514354
253.66207 143.06527 95.520117
253.67437 142.67999 95.525884
253.89132 142.23147 94.642484
254.10826 141.78223 93.759286
254.1206 141.39619 93.765067
253.94464 140.92902 92.840472
254.05975 140.51003 92.399119
254.18344 139.90223 91.970396
254.29851 139.48243 91.529426
254.51683 139.02892 90.639291
254.44398 138.52411 89.25825
254.45644 138.13611 89.264008
254.46892 137.74809 89.269773
254.58454 137.32597 88.82598
254.70043 136.90338 88.381129
254.71293 136.51497 88.386907
254.93233 136.05704 87.491111
254.9636 135.51087 85.647851
254.97616 135.12129 85.653637
255.1013 134.5071 85.220467
255.10901 134.10574 85.205008
255.23429 133.49066 84.769731
255.05797 133.01059 83.826536
255.17474 132.58354 83.376939
255.29151 132.15612 82.927452
255.30416 131.7653 82.933268
243.03174 386.66866 -18.6012
242.93263 386.13424 -18.030356
242.83354 385.60037 -17.459712
243.06571 384.97426 -16.285542
242.96678 384.44204 -15.717137
242.86795 383.91043 -15.149336
243.0996 383.28777 -13.980529
243.00085 382.75773 -13.414559
242.90228 382.22835 -12.849573
242.91221 381.79118 -12.841549
243.03482 381.08125 -11.122538
242.93651 380.55409 -10.560355
242.94644 380.11801 -10.552425
242.84805 379.59159 -9.9898694
242.97066 378.8876 -8.2815906
242.98059 378.4526 -8.2737588
242.77205 377.62655 -7.1621328
242.67438 377.10358 -6.6048149
242.79666 376.40602 -4.9067384
242.8066 375.97263 -4.8991157
242.81654 375.53927 -4.8914884
242.39728 374.75734 -2.6973958
242.41794 373.63649 1.7428813
242.53457 373.2919 1.209084
242.54458 372.86136 1.2160275
242.55443 372.43073 1.2237313
242.67127 372.08549 0.68909502
242.47292 371.14757 3.9805586
242.382 370.29957 6.7150397
242.39182 369.87142 6.7225503
242.29563 369.36 7.2650677
242.30553 368.93219 7.2722223
242.31544 368.50443 7.2793732
242.32535 368.0767 7.2865246
242.55288 367.48632 8.403581
242.56279 367.05914 8.4106891
242.5727 366.63201 8.417801
242.58261 366.2049 8.4249064
242.59253 365.77782 8.432012
242.60246 365.35079 8.4391215
242.61025 364.71456 8.4479021
242.62021 364.28762 8.4549475
242.63017 363.86072 8.4619933
242.64014 363.43386 8.4690319
242.65011 363.00703 8.4760748
242.66009 362.58023 8.4831142
242.67007 362.15348 8.4901538
242.68005 361.72675 8.4971939
242.69005 361.30007 8.5042309
242.70004 360.87342 8.5112713
242.71004 360.44679 8.5183123
242.72005 360.02022 8.5253501
242.73006 359.59367 8.5323849
242.74008 359.16715 8.5394196
242.75011 358.74067 8.5464619
242.97695 358.16215 9.6602487
242.88086 357.65918 10.199408
242.78494 357.15681 10.737709
242.79496 356.73139 10.744671
242.80499 356.306 10.751623
242.81502 355.88065 10.758582
242.82506 355.45533 10.765538
242.8351 355.03005 10.772488
242.84514 354.6048 10.779444
242.8552 354.17958 10.786402
242.86526 353.7544 10.793356
243.09151 353.18304 11.901898
243.10157 352.75839 11.908813
243.11006 352.12563 11.917899
243.12015 351.70107 11.924747
243.13023 351.27655 11.931603
242.92422 350.99568 10.83703
242.93433 350.57075 10.843919
243.05037 350.21883 10.320115
243.61679 349.4571 3.3098497
243.627 349.02918 3.3169971
243.63721 348.60129 3.3241413
243.64742 348.17343 3.3312822
244.73383 348.47211 -2.0746108
244.63604 347.96934 -1.5238543
244.32105 347.60874 -2.1031055
244.33132 347.17872 -2.09578
244.3416 346.74873 -2.0884578
244.35189 346.31877 -2.0811351
244.36218 345.88885 -2.073812
244.37248 345.45896 -2.0664958
244.38278 345.0291 -2.0591754
244.39309 344.59927 -2.0518583
244.4034 344.16947 -2.0445443
244.41372 343.73971 -2.03723
244.64105 343.17312 -0.90021809
244.65136 342.74391 -0.8929402
244.66168 342.31472 -0.88566919
244.672 341.88557 -0.87839759
244.68233 341.45645 -0.87112571
244.69267 341.02735 -0.86385327
244.70301 340.5983 -0.85658776
244.71335 340.16927 -0.84931803
244.72285 339.52993 -0.83913068
244.73323 339.10098 -0.83193472
244.74361 338.67207 -0.82473106
